15.693698 -3.711451 3.188873 
-17.578930 4.673719 5.200790 
-0.834599 -9.057287 -3.876338 
1.190968 -6.590503 -3.985609 
-26.089037 -1.703204 10.838682 
4.188143 11.903128 -4.639824 
9.029102 -5.076873 -0.837829 
-17.518375 4.255611 5.070185 
-22.476233 0.899800 7.571853 
11.775234 -3.518006 1.256845 
3.356619 8.153851 -4.365231 
13.584291 -7.696582 3.118651 
13.626521 2.963177 0.982743 
-29.425098 -4.182751 12.609065 
-3.956789 2.136283 -2.297042 
-4.282813 12.272189 -4.638707 
21.060013 -5.489087 7.403019 
-12.465261 -5.698506 0.599889 
27.050621 -0.267479 11.763358 
3.745383 4.682787 -2.281506 
-2.406111 2.367118 -5.089488 
-24.153479 -1.775879 8.979139 
-4.908472 5.647193 -2.468167 
30.753288 -3.563596 14.008980 
-12.731513 3.438991 1.190723 
-10.968457 -3.395800 -1.128472 
-14.022092 -4.405868 1.809004 
11.984814 -4.910428 -0.156456 
-0.659034 -5.544363 -1.986487 
0.923098 -5.206030 -5.810225 
4.327552 -1.796029 -1.821820 
5.240484 4.220875 -2.562929 
23.779156 -1.775956 9.523302 
18.674994 4.511240 5.549598 
-18.989243 -5.408455 5.620471 
-2.658811 11.656282 -4.911662 
-2.994359 15.072489 -4.174088 
-2.537691 2.995214 -11.583724 
-4.606109 13.581987 -4.634796 
1.866927 -2.663693 -5.875622 
10.878362 -3.204899 0.464109 
13.373341 -6.313741 3.188757 
5.217663 15.434250 -4.463533 
-10.377792 5.606400 -0.883749 
18.669104 -5.623687 6.377387 
-19.936255 -0.386259 6.145864 
-4.801137 3.835115 -2.795227 
-7.568665 6.748578 -1.476579 
-5.424102 -0.767593 -2.991241 
-19.326479 -4.306690 5.617455 
2.618309 2.779002 -6.355783 
-4.590957 0.503454 -2.120150 
-11.626733 2.624381 -1.122271 
9.656093 5.170847 -1.515004 
-2.163291 -3.830585 -4.545520 
-20.839762 -1.988952 7.084284 
-0.440604 -1.510669 -1.456915 
-20.416916 -3.852003 7.369005 
0.498268 -0.633944 -6.798861 
4.227616 1.018952 -3.466837 
18.762432 -2.437537 4.884229 
-13.623566 -7.056582 2.111850 
1.974945 -4.855001 -3.744345 
13.859266 -7.764873 2.814760 
10.775877 3.076300 -0.661304 
-12.198839 -3.283571 -0.344041 
12.862316 5.909992 0.658318 
-2.099884 -1.483987 -6.143233 
4.290298 12.224319 -4.109602 
18.308321 4.302207 5.391917 
-0.686299 -4.503613 -1.780010 
8.509028 -1.956539 -1.965296 
2.144013 11.136999 -4.961897 
8.928729 -2.460101 -0.298625 
24.169125 1.726279 8.842029 
4.376924 12.646966 -4.637589 
2.606800 4.212566 -4.074967 
0.000000 -2.464084 -1.458349 
14.933573 6.626400 2.265381 
-3.025799 1.032424 -5.928856 
9.684027 0.976502 -1.731571 
3.262002 0.473985 -4.232237 
14.752076 -6.165469 4.297866 
-20.447025 2.188834 5.825119 
-22.814503 1.833049 7.308344 
-1.865714 11.788530 -5.007994 
-3.093688 2.795906 -4.020830 
-26.158779 -0.641847 11.546514 
8.435377 0.147604 -0.970495 
-12.558573 -2.919730 -0.040296 
1.443638 -6.242218 -3.187535 
-5.056099 6.631516 -1.947370 
1.851886 8.251710 -3.726146 
-9.321547 -1.815336 -1.738974 
-3.250293 8.040618 -3.986722 
4.140071 14.074887 -4.140990 
13.909114 -4.983532 1.818855 
1.642957 6.160681 -3.402541 
-2.624683 3.183300 -4.402798 
2.944263 0.866240 -6.875652 
28.029804 -0.770369 13.060066 
0.490561 3.037297 -2.929605 
1.967186 5.200410 -3.115563 
-0.286939 -1.820581 -1.441002 
5.903526 2.325856 -1.787559 
-22.546986 -0.010797 7.446776 
-25.655323 0.146988 11.023363 
-1.800493 13.129745 -3.904443 
-24.874075 2.425133 9.662040 
-5.854083 6.090254 -2.130025 
2.808379 -1.224683 -4.786355 
-6.452100 -2.495506 -2.506612 
1.125877 0.163836 -1.906860 
4.444374 -0.095126 -2.091105 
-0.285640 -4.163312 -6.385031 
-2.374422 -3.161423 -4.634487 
14.978488 -2.842110 3.810933 
-9.635604 7.722742 -0.915256 
-28.602272 -0.271387 13.219828 
-15.344059 7.268873 2.030056 
-13.777397 -0.943028 2.638961 
-23.035791 -0.012405 7.181465 
18.351570 -6.247981 5.798374 
-23.568932 0.671222 7.789195 
-10.340332 2.409516 -1.504994 
-27.922846 0.182410 12.823101 
24.540613 2.346271 9.265208 
7.127946 -2.080156 -0.917212 
22.615952 1.109675 7.055902 
24.038654 -2.784340 9.310759 
-10.333389 0.715254 -0.512313 
-0.738779 3.005265 -5.156538 
13.786380 -5.023791 3.361635 
8.586421 -4.206084 -0.338561 
-15.428026 -6.991535 3.600550 
-3.260789 11.195570 -3.989702 
11.381562 -4.771627 -0.723069 
18.343990 -4.247334 6.129642 
1.938527 8.598907 -3.768266 
16.497921 2.434017 4.287087 
-27.355385 -0.628997 11.952230 
19.283909 2.288749 5.617060 
10.296244 -5.117590 -0.879144 
5.893560 6.762563 -2.188353 
0.193170 15.060182 -4.663374 
-2.953963 -2.493332 -3.830379 
-22.315540 2.832216 8.087026 
13.178908 1.197801 0.373629 
28.105686 -3.389490 12.681238 
-18.053568 -2.435257 5.482498 
21.676285 -0.216486 7.032589 
28.924232 -3.665347 13.033293 
-4.129133 4.249646 -2.146726 
-2.186149 2.792085 -6.144709 
-12.456139 -6.876224 1.751119 
1.361419 2.672486 -2.710320 
-12.874903 -7.238361 2.209945 
-13.283049 -0.705932 0.527074 
8.952923 1.539883 -1.919121 
11.739232 3.957871 0.178333 
-14.671736 1.356843 1.926607 
-14.323665 -3.542948 1.959686 
-14.908103 4.966825 2.616623 
-1.312785 6.095395 -3.378616 
-2.616470 7.007627 -3.736172 
-0.852250 2.228714 -2.663764 
0.049041 -6.937706 -5.467160 
-16.214005 -5.036174 5.006510 
-4.112635 13.962879 -4.698849 
5.555054 1.911226 -1.878741 
-1.294001 -2.371157 -6.397249 
10.552421 -2.355271 -1.327943 
-1.093001 14.452155 -5.038143 
-25.244335 1.660225 9.704926 
-1.935066 9.598229 -4.955409 
-1.294819 8.418044 -4.984632 
-5.024569 -3.421813 -1.529307 
24.168213 1.497573 8.362816 
4.375887 12.988476 -4.658944 
-0.315907 4.758535 -3.209742 
28.701279 -0.720801 13.570041 
-1.398561 -2.464052 -1.633778 
-15.142948 -4.303806 4.197645 
9.317184 -3.065785 -1.639443 
31.234240 -3.849507 14.122940 
1.809549 14.850415 -4.062461 
-3.022905 -1.219205 -4.219499 
-18.433041 -3.154989 5.909332 
-13.713495 -2.170886 1.123942 
7.390070 5.163905 -1.358319 
25.006981 -2.898446 10.216820 
1.011162 8.860359 -5.019245 
-5.821268 -0.370793 -1.643376 
0.614765 6.521500 -3.418526 
-14.438075 -7.567580 3.086699 
-16.537727 -3.434013 3.674326 
2.878944 1.816487 -7.229144 
2.342636 13.517590 -4.974717 
20.899273 -4.571729 7.728658 
-14.282362 -7.522928 3.931026 
19.491446 0.949946 5.137352 
11.403582 -5.062045 -0.584342 
-29.111126 -0.811298 13.780163 
-2.565766 13.922155 -4.953761 
-19.470898 -3.848081 6.748884 
-11.775234 -3.518005 1.256845 
3.672141 11.441674 -4.038732 
-8.362043 6.187201 -1.967487 
-2.119063 2.659386 -11.300469 
-0.787623 -6.243444 -5.447435 
-5.054078 0.089001 -1.938679 
17.092087 -0.904717 4.707639 
-11.788372 -0.888082 0.761339 
-3.027376 0.845675 -6.344297 
-4.444374 -0.095126 -2.091105 
0.937047 -0.920141 -1.578787 
0.852108 -8.538338 -2.432393 
5.522262 -4.229131 -1.662936 
16.749069 -5.801843 4.183518 
-10.199553 -4.801416 0.151876 
1.836162 10.485014 -4.989318 
-0.433362 -9.939903 -2.113582 
18.911921 0.951897 5.448423 
-15.923414 3.434753 4.001041 
17.208746 4.877827 5.085613 
19.433960 -2.754190 5.358509 
4.855873 11.196764 -4.308444 
0.000000 1.905475 -2.570604 
8.218046 5.251997 -1.341107 
-18.674994 4.511240 5.549598 
15.746532 -6.296805 4.847455 
-7.992103 -3.513148 -0.501761 
-16.523399 -6.433939 5.209098 
-16.283894 -6.644636 4.098734 
-2.950646 3.783387 -3.832628 
21.186422 -4.569732 6.964484 
4.564299 4.225761 -2.031000 
7.752866 -1.809165 -2.200280 
9.687590 -3.139549 -1.527236 
-6.290929 6.126021 -2.316305 
20.180193 -2.249577 6.734457 
17.715946 -5.289241 5.889067 
-2.441056 3.129684 -10.530093 
0.653488 -3.471610 -1.593485 
11.762630 1.374943 0.479395 
2.607473 5.443357 -3.794349 
1.191089 -10.851442 -3.623862 
6.516151 6.454093 -2.212066 
-12.859322 -4.699863 0.703033 
1.292388 8.949661 -5.007268 
-9.209841 -4.261819 -1.499030 
16.055584 -6.541788 3.893201 
13.207008 -0.639178 0.429552 
-0.964027 -1.435135 -6.732082 
-21.445900 4.143572 7.721242 
-7.075568 -3.547708 -2.191299 
-11.950155 -1.844633 1.072464 
11.344546 7.444990 -0.748443 
10.192825 -5.000351 0.067007 
-9.887239 -2.225218 -1.537015 
1.471808 -3.253359 -6.052072 
-21.728062 -4.857456 8.188270 
-5.235889 4.258984 -1.963113 
-2.626215 2.507687 -8.035229 
1.262702 9.416841 -5.022461 
3.154375 -2.187913 -3.727201 
11.410515 -1.037694 0.410747 
22.754545 -4.282265 8.027398 
-12.533298 -0.972373 1.503438 
-1.577165 8.959764 -4.977837 
-5.598886 -1.183279 -1.550066 
-8.333132 -4.150294 -0.423289 
-4.998712 6.520181 -2.226604 
9.001811 3.876037 -1.766028 
-4.370110 -3.862479 -2.650265 
-17.251793 4.385503 4.193048 
-1.837018 2.765462 -5.011407 
-19.687605 0.863788 5.923335 
5.773513 14.852215 -4.350347 
-3.455268 0.454892 -3.984493 
-2.598132 0.346863 -7.612700 
-15.746296 -7.272850 4.336262 
-4.329081 12.900673 -4.117133 
-3.417583 10.148708 -4.722850 
2.593444 6.057321 -3.946562 
11.544649 0.230444 -1.171968 
15.149643 1.947926 3.461644 
-8.134335 4.659648 -1.688034 
0.971335 -7.615201 -3.801701 
21.505333 3.691166 6.820290 
14.710117 2.125959 1.924037 
-13.044584 -6.604557 1.437562 
24.489368 2.988801 8.948518 
11.610061 -2.892837 -0.924456 
7.818645 -3.974351 -1.909872 
4.708044 10.843206 -4.341807 
4.189609 5.002918 -2.127140 
23.374702 -0.063169 7.968297 
-14.957935 2.570465 3.187236 
-1.951949 3.333893 -6.992707 
-8.946594 0.055837 -0.816288 
1.491603 2.562124 -6.643321 
-15.523779 4.155412 3.360345 
1.063842 -3.814281 -1.715976 
21.495342 -3.364695 7.026459 
12.512678 -1.043765 -0.400018 
2.717535 -4.057015 -2.293081 
12.094243 6.640156 -0.593347 
5.900513 -4.312517 -1.543179 
1.174115 1.828790 -7.457000 
12.123327 -5.180901 1.860922 
16.935726 0.288121 4.530297 
14.273337 3.593076 1.501409 
1.837018 2.765462 -5.011407 
6.453329 -3.692346 -2.312977 
-10.277649 2.957249 -1.488092 
-20.271904 -0.995078 6.424126 
-21.908203 0.488102 7.159964 
-6.916184 -4.428576 -1.106673 
-17.832159 3.614351 5.072176 
13.810488 -7.817142 3.357512 
-18.311531 -3.416372 4.773332 
-1.970732 -1.474923 -6.410131 
4.297891 10.148651 -4.431545 
-28.924232 -3.665347 13.033293 
2.293998 -4.167392 -3.799490 
12.377518 -1.335833 -0.523826 
24.023239 0.666590 8.079877 
-2.490310 3.254385 -8.136112 
0.558436 -9.640282 -2.208527 
-12.543937 7.122532 -0.044769 
16.956167 5.932599 4.596173 
-8.372740 4.329713 -1.608265 
-28.491121 -3.866467 12.640611 
0.851459 -5.896340 -5.549932 
21.994471 3.969646 7.305134 
-14.865049 -4.263942 2.650343 
1.928174 -5.243296 -2.819290 
-1.223412 15.463505 -4.663374 
11.293892 7.739508 -0.991062 
-10.930651 -1.430731 0.099226 
9.321547 -1.815336 -1.738974 
1.903908 13.794893 -5.023924 
-1.877710 14.308984 -5.029366 
0.763928 -4.859369 -6.065098 
20.894823 0.185529 6.606127 
-15.077951 4.143301 2.885159 
-1.407182 2.088801 -2.569978 
9.265770 -1.061663 -0.517017 
0.885096 -6.590708 -5.100896 
-13.147596 5.352031 1.785308 
2.572145 -2.810019 -4.374027 
-4.747165 -1.882168 -1.689001 
17.731020 2.900194 4.219490 
19.613277 -5.332056 6.917799 
-18.663126 -6.040353 6.176470 
4.054295 1.771450 -3.463345 
-2.738115 2.523276 -7.372893 
6.831274 -2.639860 -0.934535 
23.003563 -1.634678 7.768466 
-1.035557 13.277938 -5.036734 
-22.736567 3.546746 7.728270 
2.196064 3.187760 -9.533184 
12.888515 -0.394021 0.020984 
-15.752774 2.571296 3.032423 
-10.230707 -0.174818 -0.419437 
14.045340 7.368442 1.595665 
-15.907307 0.405554 3.995637 
-5.909737 5.100120 -2.293527 
21.533482 0.982390 7.029492 
0.139365 -11.423223 -2.326000 
4.484898 -0.879649 -3.274846 
-1.057951 -2.138728 -1.528368 
19.388153 -0.822712 5.098478 
27.430580 0.048951 12.274510 
22.880728 -2.644748 8.923092 
0.991862 10.496639 -3.808198 
14.506114 -1.550326 1.931425 
15.551125 -6.522919 3.534639 
3.400457 11.269940 -4.006044 
1.043086 -5.550622 -5.478179 
-2.637055 2.835830 -6.654604 
2.223818 3.076648 -4.713056 
-0.896457 -7.615336 -4.250853 
0.095666 8.717300 -3.689181 
2.322450 8.208971 -4.813816 
1.554661 -1.938736 -6.352304 
-2.525099 3.205014 -2.543815 
-12.673306 -3.568370 2.078537 
-7.559527 4.158546 -1.394788 
6.136000 -0.302212 -2.814185 
-15.169651 -6.525166 4.539798 
-12.378956 -5.468811 2.152273 
-11.965711 -1.433971 -0.890994 
-4.307882 13.406511 -4.696381 
6.099263 3.268291 -1.750494 
-9.413339 2.944487 -0.947593 
1.647964 8.723654 -3.742002 
-19.006203 1.711232 5.406948 
18.938736 -2.166857 5.938467 
18.100245 0.843390 4.342767 
15.729623 1.905387 2.996389 
-9.518058 1.336925 -0.800315 
-22.814299 0.314643 7.083124 
14.316124 2.103518 2.726155 
-15.240982 2.640429 3.462321 
-5.160229 0.527032 -3.133131 
-17.222523 2.153240 4.641897 
-14.126782 7.175884 1.565757 
16.523399 -6.433939 5.209098 
13.147598 5.352031 1.785308 
-16.936659 -2.956880 3.858748 
12.212011 -4.260684 1.824848 
25.520931 1.657195 10.074886 
-5.145602 -2.235460 -2.902054 
-17.384897 4.858257 4.382130 
-9.955264 -3.309489 0.141858 
-17.715946 -5.289241 5.889067 
11.658639 -5.873578 0.220447 
-6.891315 -4.231413 -2.013473 
5.522157 -2.975760 -1.342219 
2.845834 -1.831268 -4.319530 
-2.036614 -0.589487 -7.483094 
-18.940502 -0.379285 5.611449 
19.358173 -1.759887 6.081953 
2.490386 2.996174 -6.593137 
0.458974 -9.939085 -4.662998 
-0.878785 -7.939464 -4.062590 
-6.742827 -1.021101 -2.576196 
-11.338711 -4.135597 -0.911367 
-15.087179 -5.179532 4.359511 
0.778537 12.471280 -5.035349 
-18.545532 2.026680 5.150129 
-4.799597 -1.848327 -3.046414 
0.466020 -3.481120 -6.544799 
-22.890865 1.096050 7.870323 
2.555536 11.852839 -3.933390 
24.559847 -2.245582 9.676406 
-10.773891 1.125521 -0.387306 
13.210476 2.444353 0.466599 
2.221141 5.321619 -9.469208 
-8.330758 -4.848301 -0.773645 
-2.829362 6.845239 -3.979627 
-6.581884 7.146173 -2.112433 
11.610888 -5.211681 -0.357881 
-4.558349 10.324827 -4.312459 
-13.903049 -0.571136 1.217029 
-11.187123 7.326346 -0.990492 
5.377363 -1.137176 -1.625340 
-23.696533 1.451009 7.987595 
-2.682162 -0.076985 -5.422415 
3.850171 5.993642 -2.703328 
-18.050106 -5.644155 6.063872 
-23.455860 -3.084188 8.603083 
17.314005 -6.441888 5.507435 
22.408409 -1.238254 7.926769 
1.019096 15.482095 -4.966459 
0.957723 14.422129 -3.962485 
19.146774 -3.680193 6.503125 
25.477158 0.695066 10.194389 
-22.358526 -0.741387 7.502410 
14.386673 -2.450702 3.387151 
-15.820986 -0.305100 3.994370 
19.151119 -0.783846 5.779279 
-25.287064 1.711200 10.163666 
2.977939 1.386072 -5.721042 
8.575953 -1.226378 -0.673787 
3.377010 -1.897642 -3.626129 
9.540318 -1.716093 -0.279621 
0.391521 5.158127 -4.978996 
-3.002182 14.368032 -4.104009 
9.448572 5.688317 -1.609862 
-13.875452 -6.005773 2.004801 
2.466411 7.524268 -4.687038 
-15.088701 -1.703013 3.726218 
-4.024486 10.840775 -4.078762 
-16.077663 1.865629 4.043462 
-13.927423 -3.985480 1.625621 
27.155817 -3.280402 11.550694 
16.214680 -2.534610 4.458854 
3.049839 14.249683 -4.723451 
23.089561 -0.722101 8.157757 
-3.916352 4.788330 -2.911939 
0.061267 13.763384 -3.917539 
-2.580071 15.818643 -4.639410 
-4.487835 1.354436 -3.322720 
-12.919332 6.550817 1.355438 
10.759002 2.635920 -0.592608 
19.936255 -0.386259 6.145864 
17.029362 5.750846 5.251636 
-15.935386 0.439707 3.129559 
-7.585381 0.709745 -1.266223 
7.708603 0.443383 -2.336635 
24.170574 0.128187 8.184325 
-0.303501 -0.639629 -1.578836 
18.468102 5.837721 5.251477 
3.716308 2.156643 -2.351206 
-0.802186 2.793067 -2.834747 
15.613819 -2.903953 3.063388 
18.190512 1.439458 4.399279 
-8.179358 0.607015 -1.091522 
-19.243525 -2.566724 5.201564 
2.270732 4.194418 -10.096668 
-0.401701 7.509939 -5.007255 
15.793777 -3.432240 4.391781 
-1.503787 -1.154603 -7.067119 
1.554201 -5.548473 -2.311451 
-3.262002 0.473985 -4.232238 
2.339171 -1.228317 -1.955926 
2.741080 11.608044 -4.901431 
-12.619489 -2.081808 1.739689 
-5.988332 0.739191 -2.862849 
-1.566312 -5.895833 -3.320021 
-9.687590 -3.139549 -1.527236 
6.141896 -4.103747 -1.264129 
-20.679810 -1.586150 6.813725 
-9.808426 7.436566 -0.273080 
14.850257 5.865107 1.756318 
18.078629 5.750816 5.014548 
2.515906 3.762132 -4.317409 
5.322529 -1.335489 -2.955505 
21.454777 -1.101825 7.107195 
12.677339 4.957687 1.341373 
-0.879073 -9.796205 -4.083148 
-18.703018 2.455977 4.720730 
4.416730 14.176544 -4.145478 
11.525350 7.404043 -1.018015 
-5.458928 15.550493 -4.341437 
9.983339 5.172265 -0.691395 
-8.261421 -3.864813 -0.418748 
17.367699 0.325203 3.939936 
-2.934063 1.354296 -5.618894 
12.425022 3.624703 0.780690 
10.429455 4.017784 -0.814075 
13.974874 4.829019 1.351096 
8.826047 2.489092 -1.884157 
2.936627 -3.505322 -3.422718 
-15.201463 -5.346646 3.102853 
1.919578 -4.179956 -4.798961 
-12.361061 8.034480 0.185491 
2.067850 -1.374486 -6.576674 
-22.522970 0.775835 6.949508 
17.707720 5.365888 5.441506 
22.814299 0.314643 7.083124 
-17.205318 -6.167507 5.572107 
-2.951444 13.291351 -4.898923 
14.281651 -6.282907 2.479438 
-13.449100 -2.379551 0.864409 
-17.713238 -3.416259 5.537761 
-1.787225 -5.211717 -2.362302 
6.328507 1.911077 -2.655787 
-6.551053 3.718028 -1.634589 
-0.488530 -6.243844 -5.659709 
20.647568 -3.200922 7.394080 
7.585381 0.709745 -1.266223 
-22.707300 3.820069 7.963722 
12.861547 0.746694 -0.024498 
5.543534 -3.947544 -2.411820 
-0.500488 12.388641 -5.035349 
-1.210128 2.008270 -7.544102 
-2.159753 14.199983 -5.003701 
1.849507 -5.221276 -2.461969 
-0.956366 7.370450 -4.978398 
7.511422 3.705827 -2.106036 
-14.542448 7.619651 1.784317 
-13.116447 -6.907633 1.659085 
-11.788075 -2.014100 -0.932202 
-7.716621 4.679553 -1.868803 
18.313133 -5.750176 6.179203 
-26.797768 -1.205883 11.383214 
-8.089388 -1.576656 -2.124659 
-4.858119 -1.546473 -3.064715 
1.356526 -0.865170 -7.244358 
16.321388 -6.072338 5.151362 
-4.189895 -1.117020 -3.351943 
-17.077291 3.985932 4.797313 
6.452100 -2.495506 -2.506612 
-1.595803 2.963472 -4.981745 
1.223415 12.516763 -5.035349 
0.364077 13.598404 -3.911531 
-5.933080 3.816761 -2.398845 
-15.954917 -4.852877 4.819554 
-18.585928 1.908605 4.631204 
-18.853748 -2.087034 4.892978 
15.388068 -5.269682 3.216490 
19.104939 -2.332791 5.077191 
24.627329 1.659688 9.418316 
-15.914046 -5.148742 4.848908 
-0.917566 -10.921799 -2.552299 
0.479738 -11.998825 -4.410956 
-8.706289 -0.784310 -2.003275 
-18.696817 0.520287 5.371528 
-6.831275 -2.639860 -0.934535 
18.045227 -3.820817 5.852267 
0.347239 3.335963 -3.002350 
7.626601 -2.406433 -2.180871 
17.128372 1.541297 4.585642 
11.780184 -3.221611 1.199188 
19.362755 -3.510633 5.481682 
-0.716692 -7.939504 -4.699176 
6.854907 -3.207004 -2.307379 
21.620178 3.555995 7.812290 
14.029514 4.842555 2.250151 
1.876952 0.061300 -7.995518 
6.355462 -1.624776 -1.235663 
2.163291 -3.830585 -4.545520 
-1.978044 12.218651 -5.000890 
-21.001308 2.383060 6.190128 
17.225746 -0.945275 3.889103 
2.888934 2.685020 -4.310458 
-3.377010 -1.897642 -3.626129 
2.962247 0.304177 -6.321353 
-7.708603 0.443383 -2.336635 
13.927298 6.231695 1.428835 
18.085356 -4.767735 4.875979 
8.522537 -0.073263 -2.085967 
2.173264 -2.040577 -5.764290 
-25.428932 -3.952586 10.678137 
12.312275 7.466074 0.292929 
29.744026 0.032878 14.449518 
14.789081 -5.868531 4.288913 
12.169880 -5.547286 1.930089 
12.856751 5.085473 1.078094 
14.226560 -7.845121 3.179157 
13.439710 -5.719093 3.181584 
7.852764 2.674372 -2.137545 
28.344456 -0.900797 12.814001 
-2.784204 -0.408230 -2.218570 
-2.010628 5.092093 -4.605004 
0.452695 -0.920190 -1.526255 
-12.742516 -2.986806 2.011395 
12.301681 2.450709 0.864255 
8.779884 4.631726 -1.283734 
2.496778 5.289742 -4.021923 
2.998360 1.849179 -6.373492 
4.305285 5.941185 -2.730343 
0.706815 10.841947 -5.031659 
-27.339981 -0.974429 12.464318 
20.273672 -4.456810 7.341484 
-0.466020 -3.481121 -6.544799 
-10.111638 -0.712916 -1.579216 
-0.557479 -8.541039 -4.711629 
9.961110 -1.508630 -0.210472 
-21.835642 -3.206062 8.244089 
-11.733706 -2.305933 -0.927219 
7.170134 6.777619 -1.770622 
5.214061 1.655177 -3.025414 
-20.360600 -3.688643 6.226568 
-17.856268 3.466409 4.346194 
-0.764322 15.480215 -4.966458 
11.980293 -4.367628 1.612501 
17.573853 -2.775348 4.217088 
-4.678073 -2.459110 -3.004794 
-0.947725 -2.281191 -6.584600 
-2.920455 12.834400 -4.901643 
12.833476 -7.072212 2.436541 
0.497134 -11.113300 -4.792855 
1.585903 2.108434 -8.800772 
3.211784 13.632956 -4.737106 
15.846622 2.720758 3.913260 
11.680497 -3.966514 -0.709907 
3.177041 4.728019 -2.573418 
-20.030048 -3.524836 5.949681 
2.266762 -3.821361 -4.255465 
2.682189 14.803385 -4.890037 
1.860616 11.352203 -3.857686 
18.034492 6.015431 5.683404 
-16.845196 -0.328387 4.526840 
-2.567662 6.022670 -4.005754 
11.775967 -0.383811 0.684989 
-14.032557 -6.946698 3.863318 
4.005697 11.184788 -4.075216 
9.835741 7.599798 -0.533044 
-13.338690 -4.414894 2.835310 
7.510200 7.038709 -1.438659 
-14.364977 6.288362 2.222001 
-2.791371 4.912675 -3.632257 
-6.052691 -0.888426 -2.793414 
-1.255923 -1.820506 -1.573294 
-13.212461 -3.279896 0.762765 
-12.850254 -2.256160 1.973877 
-3.326751 4.852853 -2.996168 
-18.085356 -4.767735 4.875979 
10.980117 -2.439361 -1.190421 
-2.998796 4.949892 -3.264704 
2.748147 2.512681 -2.498528 
20.095627 -3.364678 7.050953 
-10.461580 -5.389349 -0.381426 
21.743820 -0.872730 7.198617 
-2.411109 14.124878 -3.978498 
-17.876253 -0.908149 4.251887 
3.316175 13.778978 -4.130323 
15.589088 4.848139 2.688530 
15.250404 6.897051 1.858703 
19.520283 -3.206506 5.516203 
-0.944742 -0.639360 -1.636418 
1.171851 8.436771 -4.996063 
18.692867 2.540529 5.192012 
-11.679327 -6.072463 0.634957 
1.662519 2.481436 -8.858578 
19.265694 -0.387537 5.009885 
23.811218 -2.921485 9.692004 
15.116109 -6.993201 4.457068 
0.251708 14.616775 -5.009490 
-17.067167 -3.043392 5.051141 
2.177068 12.446750 -3.911014 
-23.232189 -0.493591 7.273337 
-10.489552 -4.867008 0.257992 
-2.815718 -0.570533 -5.005878 
-4.099492 9.769356 -4.454701 
2.820117 -1.261624 -2.049001 
2.518462 2.827358 -2.531093 
21.155426 -5.013734 7.041019 
-3.279076 11.991366 -4.002114 
17.946537 -2.309166 4.385181 
1.535992 9.786055 -3.791478 
-1.571481 -5.897054 -2.613870 
-0.411446 -9.057367 -4.679540 
2.279043 -4.549039 -3.355482 
-19.547039 -1.211157 5.214441 
4.505412 -2.108843 -3.104787 
-8.926057 -1.875719 -0.419471 
7.786506 2.963422 -1.339050 
-4.747457 0.823382 -2.094279 
19.144785 1.398275 4.945012 
-1.740955 14.359702 -4.027101 
9.144207 6.072371 -0.992586 
1.666089 0.445512 -2.148285 
-8.731953 -0.460818 -2.011075 
2.963585 1.399555 -6.880721 
23.236425 0.352665 7.383153 
8.721573 3.013263 -1.150663 
-14.906312 -4.069289 3.998005 
0.407321 -2.795417 -1.491179 
2.327619 3.127441 -9.267797 
-15.275278 -0.359028 2.658550 
-6.790288 -3.489354 -2.275835 
-1.674469 15.287929 -4.616465 
13.192268 -2.491376 0.595210 
-2.328363 7.920430 -3.756645 
4.993854 14.157234 -4.561025 
-12.888514 -2.543841 0.251218 
11.960293 1.625020 -0.976282 
5.319580 5.112894 -1.914102 
-7.686706 1.590409 -1.293038 
9.835396 -0.103768 -0.544375 
-13.912392 6.583502 1.454843 
-13.725193 4.280926 1.174318 
-11.207422 -5.571023 0.589843 
15.179439 -3.625757 4.069123 
-15.431712 -1.006459 3.844208 
13.699479 3.585470 2.123408 
17.418648 6.590152 5.178433 
7.970569 -4.250760 -1.788793 
-0.478471 -1.812077 -6.793959 
18.936260 -1.706096 4.901287 
-6.226389 7.312649 -1.961719 
-13.923342 2.878661 2.339573 
8.816860 7.726366 -1.303057 
-1.806917 15.524097 -4.807545 
7.686706 1.590409 -1.293038 
20.895870 3.924650 7.365792 
0.901228 -0.288229 -7.067096 
-0.798611 -11.126092 -4.472905 
-1.681371 -0.092827 -1.990323 
-1.206308 6.500390 -3.439626 
13.999569 -5.400442 1.998313 
-0.149335 -0.920196 -1.519476 
25.004017 -0.636017 9.566698 
-2.173264 -2.040577 -5.764290 
18.831692 5.278508 5.746209 
-9.623598 6.904088 -1.327831 
1.407182 2.088801 -2.569978 
9.805735 1.438928 -1.688969 
-3.837373 -3.982579 -2.559745 
6.260706 -3.381027 -2.432763 
-8.473963 -4.109717 -1.716383 
14.958216 5.914086 2.426166 
10.759529 -4.302285 -1.087931 
0.872569 13.500216 -5.037195 
1.255461 3.577958 -2.909740 
-12.142321 -1.620829 1.226362 
-0.426134 -2.138759 -1.448638 
1.951949 3.333893 -6.992708 
-8.435377 0.147604 -0.970495 
-18.341911 3.792152 4.644184 
-20.945208 -5.186027 7.661678 
26.596352 -3.156492 11.782205 
-13.806807 -2.855776 2.940554 
22.033676 0.660834 6.625875 
-3.322717 -1.622134 -2.017907 
5.601202 3.321532 -2.626983 
-21.542904 0.500626 6.318899 
-21.211136 1.930250 7.064023 
16.057919 5.609607 4.611699 
2.684997 3.753745 -10.090805 
14.799290 7.579322 1.888494 
2.510012 -3.505909 -2.046188 
21.928968 -4.158422 7.436139 
1.247774 1.988114 -6.228296 
-20.894823 0.185529 6.606127 
23.005100 2.140016 8.281586 
13.884117 -7.597052 3.631434 
-25.803051 -3.029442 10.754177 
-13.000162 5.249541 0.474346 
-8.453999 4.132102 -1.373582 
1.297975 0.429304 -2.038882 
2.273519 2.973806 -11.185366 
20.902430 -1.521178 6.043730 
19.050224 5.635333 5.506100 
-1.666751 -1.511417 -1.714850 
2.626084 13.611053 -4.943818 
-1.703042 -3.261529 -5.811571 
20.208918 -3.203342 5.997045 
21.132244 3.857937 6.638031 
12.689885 1.569787 1.361353 
-2.078214 12.959846 -3.915068 
2.135217 3.748382 -4.632371 
-2.196064 3.187760 -9.533184 
10.503721 0.857585 -1.496544 
-0.475650 13.255596 -3.899969 
-0.232440 2.036333 -5.684978 
2.509490 10.453096 -3.903769 
18.149273 -2.709340 5.609232 
-1.959889 3.071278 -10.578518 
14.059208 2.209364 1.324529 
-17.224329 -5.209219 5.607677 
-26.421394 -3.049551 11.257122 
-4.881927 1.180725 -2.064376 
-0.657004 -8.249217 -4.683632 
17.781189 0.913149 4.167553 
1.576542 0.854628 -8.392976 
-13.617572 -4.741961 1.471771 
2.585470 -1.591994 -5.191235 
-25.830328 -1.066481 10.465254 
12.483464 -4.245676 2.071505 
15.691964 -7.191391 4.534614 
-23.976763 2.032782 8.542239 
0.321522 -12.006071 -2.797209 
12.558713 0.265952 1.378051 
-14.817354 1.161146 3.284371 
-22.615950 1.109675 7.055902 
9.493234 -1.549830 -1.710558 
-1.212646 2.029506 -7.237083 
-0.955074 -6.240080 -2.181689 
13.912394 6.583502 1.454844 
8.622927 -1.382568 -1.984384 
-2.038170 1.338388 -2.442507 
2.813482 -0.908978 -4.911805 
-2.108225 14.495872 -5.011279 
1.412956 2.615170 -6.927953 
-13.298755 -7.393474 2.186076 
28.491121 -3.866467 12.640612 
-2.561898 3.955557 -10.191330 
-9.764605 -1.762446 -0.203183 
-8.876382 0.944289 -0.934882 
-17.954334 -0.366363 5.091390 
-15.545412 -2.697270 4.110738 
2.660986 4.698331 -2.752864 
-16.265079 -6.535512 5.071922 
-13.804653 -7.380248 3.610648 
-7.786767 -4.728318 -0.946064 
-8.833049 5.369260 -1.862968 
-12.200417 7.957112 -0.308492 
1.904559 9.957431 -3.832089 
-10.764794 -5.427879 -0.422427 
-0.901090 13.378160 -3.905704 
-5.893560 6.762564 -2.188353 
-0.730323 -9.640853 -4.388755 
15.787936 4.267216 4.005916 
-7.047295 -0.780845 -2.506211 
-6.808064 6.019922 -1.529203 
-13.358463 -7.590263 2.582872 
-18.669104 -5.623687 6.377386 
-16.441002 4.266494 3.744717 
-0.569286 9.809515 -3.782041 
-11.763469 -5.151437 1.456127 
-1.690864 9.786690 -4.992999 
1.547245 6.481064 -4.861405 
10.450910 5.106743 -1.008894 
2.718006 0.447881 -2.396762 
-0.936908 -0.674080 -7.017147 
-14.266428 1.432573 1.527069 
1.025897 -9.468204 -2.902199 
-2.711827 1.737228 -5.185297 
-0.935841 9.809515 -3.782041 
12.536553 -4.344326 0.267049 
0.742344 -0.836752 -6.853130 
13.756901 -5.612802 3.453730 
13.787341 -5.588039 1.821688 
20.913502 -2.708083 6.379413 
23.631744 0.224403 8.301518 
11.956831 8.286471 -0.369964 
-1.815616 3.210719 -9.447750 
-4.704201 -3.785549 -1.733031 
14.494572 -6.802922 4.170066 
1.944864 3.558722 -8.111931 
-10.785992 4.605577 -0.958992 
-0.902240 -10.071821 -4.227449 
-1.687651 3.239715 -9.116321 
-25.746414 2.467391 10.552858 
12.529210 3.996809 0.763908 
1.666751 -1.511417 -1.714850 
8.639220 7.509521 -1.541581 
9.897602 0.491814 -1.672587 
-19.070457 -0.845825 4.918144 
16.867573 -4.248422 5.237182 
7.413157 -4.185623 -0.778282 
-7.411482 6.433004 -1.671143 
25.868065 1.373216 10.585730 
0.163004 -5.891786 -2.017478 
-10.112436 2.300022 -0.726736 
25.803051 -3.029442 10.754177 
10.857475 1.816969 -1.381379 
-17.964437 -1.323530 5.219168 
11.603813 7.468790 -0.415170 
2.249567 1.366630 -2.469517 
-14.978488 -2.842110 3.810933 
-11.636920 -3.238805 -0.867212 
-13.077512 -2.744948 0.508400 
12.998765 -2.803651 2.201173 
5.546638 -0.608479 -1.680403 
-12.700077 -6.965381 2.293859 
23.818859 1.021060 8.436647 
-15.709728 -4.391686 4.566875 
-16.713535 4.185477 4.644091 
9.828524 -4.479646 0.080439 
3.439232 2.035174 -3.854644 
-17.237621 -4.381828 5.490067 
-5.006921 6.299558 -1.815722 
-29.963882 -3.750905 13.200062 
19.266407 -1.637023 5.087670 
2.292324 3.211354 -6.711899 
-13.006960 -6.620835 2.813909 
12.400836 -0.533849 -0.560596 
14.066546 0.033609 1.366959 
12.801656 6.710586 0.270446 
-24.050627 -0.034599 8.019719 
22.879772 -2.305545 8.875546 
21.925478 3.062696 7.902196 
-2.948243 1.775672 -2.489594 
30.529423 -4.126981 13.434893 
-1.412458 -1.642925 -6.546489 
0.772637 15.421417 -4.086212 
1.003636 12.219791 -3.865555 
-22.524162 2.420760 7.203573 
0.753143 10.669074 -3.813934 
-18.783710 -6.039691 5.835520 
4.651481 12.279684 -4.162836 
-23.310877 -2.832932 9.280578 
-24.375059 3.012383 8.998042 
15.294088 -6.628304 3.382053 
-10.116037 6.511614 -0.835491 
11.403846 -0.185171 -1.202560 
-12.782908 -4.251963 2.323411 
18.896236 4.478126 5.050312 
24.233112 2.222127 8.881943 
11.754486 6.708438 -0.127590 
-14.868832 4.406092 2.722977 
-0.624447 -0.101629 -1.745800 
-7.132814 1.364932 -2.468193 
8.595824 2.078026 -1.982555 
-3.593715 10.139585 -4.024390 
3.484078 9.385445 -4.001977 
-23.995878 -0.558219 8.178116 
0.905937 0.150841 -7.092331 
-3.550342 1.727589 -3.806169 
-28.345581 -0.985218 13.178259 
-0.850710 -11.741723 -3.944057 
2.480995 3.252562 -8.480010 
-22.882614 0.009740 7.589705 
-14.512785 2.882047 1.709481 
23.123159 -0.613416 7.220453 
0.455124 12.808292 -5.036272 
0.965800 15.191207 -4.061496 
-30.458937 -3.723316 13.582263 
-12.986563 -5.372361 2.712439 
-23.982933 0.742631 8.698333 
-2.556956 4.200319 -9.768172 
13.652709 -7.498177 2.426375 
-0.824420 -9.467384 -2.333746 
-1.089584 -1.510608 -1.542302 
7.016873 -4.609891 -1.597490 
3.573792 3.445388 -2.319143 
16.587408 0.328053 4.352535 
-15.020812 -5.775936 4.414910 
-13.568359 1.396558 2.185413 
11.724592 3.710567 -0.992661 
-21.817251 -2.703906 7.130413 
15.444384 -1.800076 2.883277 
14.945183 -3.304298 3.868338 
-30.031191 -0.354372 14.588705 
-9.067272 -0.170598 -1.916621 
15.088701 -1.703013 3.726218 
-15.943071 3.847391 3.340971 
-3.714837 0.131019 -3.746693 
-2.789979 -4.166104 -2.993195 
0.214927 -12.629352 -3.347642 
4.262499 14.462837 -4.608723 
3.218684 2.171134 -2.445087 
13.664019 5.357727 1.270781 
-7.947013 -0.641880 -2.242839 
-24.972176 -0.286667 9.536291 
-8.621849 6.125245 -1.489783 
-17.753933 4.659277 4.510617 
13.255850 4.494085 1.001952 
17.129957 6.011927 5.370421 
8.600579 4.710319 -1.766348 
19.222780 0.960323 4.976610 
2.738752 0.156140 -2.341789 
10.598328 4.028817 -1.235680 
4.022530 10.148567 -4.541580 
5.738951 0.641785 -1.792226 
-14.544304 4.233400 1.680969 
-12.373219 -3.809295 -0.038202 
-25.442421 1.196518 9.946775 
11.743855 -2.321804 0.965930 
-4.961245 4.648913 -1.928455 
-8.768205 -2.313004 -1.857728 
-17.320957 -2.966834 5.181969 
18.433043 -3.154989 5.909333 
-7.836513 -2.771048 -2.087564 
-20.222933 2.783314 5.813258 
2.497390 -0.950941 -5.638259 
3.240724 9.599104 -3.975568 
-4.319134 3.824502 -2.112932 
0.790884 9.820661 -5.028727 
0.127378 -12.892761 -4.442282 
1.616558 3.275697 -10.860899 
3.674046 4.295088 -2.284606 
-4.327552 -1.796029 -1.821820 
15.994427 -1.572087 4.202752 
-19.465525 0.062818 5.113945 
-23.536407 2.139830 7.973862 
11.483725 2.207494 -1.187991 
-16.766954 -4.830125 5.295924 
-10.431236 2.706404 -0.694838 
-4.606699 14.459056 -4.643865 
-15.334081 2.873745 2.503291 
14.554498 4.828962 1.662803 
-28.788219 0.284683 14.036840 
-11.336805 -1.680793 0.458270 
-1.585872 2.525674 -8.719301 
24.220638 -1.522327 8.962444 
-27.333679 -3.788102 11.964734 
-4.032906 1.396922 -3.525323 
-1.347322 6.935750 -4.918489 
2.368058 4.057261 -4.395418 
2.190873 11.969303 -3.901203 
16.008240 -3.229142 3.331194 
7.256583 7.438230 -1.216429 
17.003393 3.249749 3.861299 
-10.311059 1.215912 -0.575088 
3.130834 4.400340 -2.474063 
-2.422209 -0.690926 -7.065507 
-6.701584 5.680130 -2.164673 
-5.050418 6.148393 -2.289825 
18.815811 -1.207953 5.663632 
12.038260 2.751777 -0.846182 
26.415623 -1.031848 11.721930 
-22.880728 -2.644748 8.923092 
-0.561112 14.080537 -3.930463 
-2.934376 1.410676 -2.490348 
-0.483758 -12.415179 -3.969961 
11.160947 2.759840 -0.275835 
17.527662 -4.275890 5.642031 
14.827825 -5.477449 2.846277 
10.312870 0.426101 -1.550004 
19.279846 -4.469797 6.729679 
8.303959 -4.582263 -0.558982 
-2.402234 12.678611 -3.937702 
-2.390672 -3.846857 -2.097355 
13.836617 -2.315003 2.882506 
14.518221 -5.095602 2.464605 
11.944038 -6.204002 1.442500 
17.693039 6.228235 5.616448 
-16.454170 4.858653 4.663082 
-7.501041 2.592299 -1.377645 
-27.573250 -0.262204 12.856087 
24.152168 0.995774 8.272066 
24.928059 -3.328257 9.763447 
24.658037 -4.048584 9.363743 
15.744190 -1.744030 3.072374 
-2.738752 0.156140 -2.341789 
-1.951344 14.571058 -4.007869 
4.972962 12.574835 -4.226435 
-1.110493 4.389602 -4.906143 
-2.764466 -0.353178 -6.059889 
-21.969200 -1.093986 7.422021 
17.179600 -3.230272 4.038036 
-17.264063 -5.708217 5.648923 
0.000000 -3.134955 -6.645341 
-4.247875 2.968501 -2.179707 
-7.961112 1.238084 -2.227361 
4.402886 13.818186 -4.692015 
-3.977883 0.712050 -3.605506 
-20.916996 -4.304711 7.737886 
11.698406 -1.631445 0.787210 
5.755489 2.421097 -2.748604 
0.983398 -3.131657 -1.595560 
26.177963 0.283858 11.620235 
1.456591 5.014143 -3.141836 
-1.226801 -5.895754 -4.779649 
-24.615311 -4.252185 10.072245 
-17.650776 -2.196822 5.198662 
-3.693516 1.751622 -2.372885 
4.340341 -3.968676 -2.537562 
1.717803 -1.232700 -7.003776 
8.702973 6.918356 -1.374025 
-14.364160 7.406906 1.653089 
17.581654 -1.370741 5.021961 
-0.957723 14.422130 -3.962485 
0.158897 -11.111450 -4.917041 
-23.329037 -0.978655 8.722890 
-4.313403 12.565390 -4.113438 
1.265866 7.356685 -4.945509 
-21.441133 -2.547349 6.752051 
-0.788648 -8.249233 -4.327093 
28.317820 0.299026 13.278912 
9.773390 0.804336 -0.679342 
20.221687 -1.518373 6.521419 
-11.780184 -3.221610 1.199189 
0.073269 -13.194988 -4.459539 
-15.669500 3.105236 2.979811 
25.259392 2.157541 9.776394 
3.635431 -0.435674 -3.733006 
-12.069815 7.078403 0.137254 
22.524164 2.420760 7.203573 
-18.343988 -4.247334 6.129642 
-1.663653 -4.524993 -5.048107 
-15.061721 -0.309654 2.432567 
0.976621 9.495466 -5.027271 
9.220292 -1.194323 -1.820308 
-8.733492 7.796272 -1.672271 
-9.932768 1.797204 -0.730959 
-27.197075 -3.158014 12.203396 
15.748802 -4.603292 3.347859 
14.337533 4.867570 2.396583 
3.680946 13.829261 -4.640384 
-16.706211 0.402633 3.572001 
1.239622 0.516289 -7.876423 
23.236322 1.332321 8.127172 
14.413310 -0.101230 1.737048 
15.278021 4.314449 2.246492 
0.451886 10.669074 -3.813934 
-8.909783 -1.585984 -0.492761 
18.240562 -6.037031 5.320187 
18.045170 2.456548 5.008027 
-9.067258 1.519547 -1.888437 
12.406931 1.665476 1.060644 
-15.875804 -0.324616 3.103697 
5.267366 -4.064003 -1.636629 
-0.452320 1.157921 -2.246204 
1.287515 15.354498 -4.616527 
-12.116419 7.929100 0.028034 
-4.781870 2.979782 -2.959923 
8.604536 1.967020 -1.093025 
5.164912 12.379646 -4.361899 
20.443081 2.761107 6.734504 
-13.480358 7.173292 1.499293 
12.490078 -6.783677 2.069117 
21.126347 4.501425 7.032557 
0.533504 -9.272974 -2.273555 
-28.178623 -0.101850 13.412138 
-2.023679 12.695469 -5.001593 
11.121656 -4.075205 -1.011114 
-1.255559 6.466839 -4.914685 
1.672853 2.636688 -5.222980 
-9.129531 3.455562 -1.771417 
-7.535436 -3.106229 -0.667554 
23.103727 -0.043238 7.645121 
-1.584943 -2.669132 -6.131577 
2.801260 4.464489 -3.773954 
-15.339874 5.431069 2.083037 
1.018555 -7.938654 -3.154550 
-2.205713 13.244901 -3.932808 
10.335626 4.589615 -1.230842 
0.651948 11.989650 -5.034427 
0.579712 -9.939937 -2.137791 
4.806261 14.760408 -4.598793 
-2.117794 9.733577 -3.850254 
-15.559597 7.007160 2.073934 
-3.058198 -3.914380 -3.075562 
25.920406 0.146926 10.852814 
-4.773152 2.549354 -3.039402 
-22.214489 2.990762 7.107313 
20.850277 -1.994549 6.107766 
-0.185827 -4.508298 -6.289409 
-3.120938 3.183807 -3.860325 
3.545274 5.291409 -2.686958 
-18.881660 -2.462831 5.985000 
14.558361 -6.381205 2.777959 
12.201702 -1.919004 -0.624004 
-8.641209 1.460444 -1.042041 
-1.138502 -10.087107 -2.920122 
2.242233 9.232244 -4.906693 
27.922846 0.182410 12.823102 
7.766648 -2.840263 -0.613222 
8.101049 -2.285450 -0.582970 
2.613416 3.084297 -10.616445 
25.296219 -0.645014 10.728981 
-12.469993 -6.498939 1.064010 
4.465215 -2.747431 -1.699108 
1.443174 5.731496 -3.307015 
1.025828 12.553909 -3.877027 
-23.891052 -0.481840 7.911079 
12.404077 -5.815082 2.192213 
14.069444 6.954598 2.056493 
8.648232 -3.655931 -0.278474 
-19.495466 -0.759864 5.961592 
-23.430542 1.454620 7.736884 
0.342960 6.510390 -4.995244 
18.559685 -3.071016 4.864502 
-9.888921 -3.926032 0.147093 
27.816101 -3.569903 12.390244 
19.226362 4.662041 5.274928 
13.155907 -2.041130 0.485405 
0.482345 -7.280210 -5.240852 
17.267237 2.432588 3.934009 
-8.953348 6.093331 -1.159171 
-23.723587 0.575712 8.368666 
0.795011 1.001529 -6.566589 
19.899029 3.917682 6.495747 
-14.337534 4.867570 2.396583 
-14.822869 -5.568449 4.266588 
-0.513490 8.622246 -3.681325 
-17.894390 4.067375 5.187389 
0.594377 -11.717285 -4.442971 
0.467823 -9.275053 -4.620613 
-21.971987 4.142943 7.418219 
12.471779 7.816960 0.333269 
1.127297 -10.451712 -3.755310 
-2.999798 -3.913549 -2.246465 
-10.878362 -3.204900 0.464109 
-16.829336 6.712871 5.327423 
-20.121058 -4.316854 6.171592 
-13.971212 -7.512871 2.640597 
13.701527 -7.330014 3.505048 
-12.474804 -6.012073 0.749369 
13.101339 -5.792608 2.876040 
14.644932 2.875541 2.868952 
-11.832284 3.250915 -0.970346 
4.301766 11.362032 -4.116494 
-13.333229 -4.111951 2.762344 
-17.156849 -3.878418 5.321014 
15.829453 -6.410279 3.698614 
-2.610256 2.856433 -7.602564 
12.841247 6.874426 1.447915 
-0.416164 13.658937 -5.038117 
10.143306 6.848248 -0.612203 
-2.192940 -2.812006 -1.890244 
2.399869 -0.906220 -6.870030 
8.441436 -4.557912 -1.555301 
-2.309268 6.254392 -4.490732 
12.066196 7.869861 -0.480697 
5.887871 -2.437736 -1.258608 
2.382860 4.189124 -2.691480 
-1.862481 13.993704 -3.964926 
-28.317820 0.299026 13.278912 
-15.495019 -7.370626 4.072547 
12.970833 4.603992 0.319468 
8.363220 3.019635 -1.253762 
-12.201627 -5.264220 1.951994 
1.392844 2.679967 -7.238200 
-20.902431 -1.521178 6.043731 
-10.056820 5.637656 -1.167122 
-1.165651 -4.158446 -1.803822 
10.888564 0.592241 -0.251728 
2.085598 1.070039 -8.575574 
-13.736345 -7.693100 2.678199 
2.111435 14.919556 -4.024380 
13.324396 -3.776386 0.974989 
24.571449 -2.973480 9.693893 
-12.979642 2.247140 1.586656 
-18.959721 4.407497 5.591924 
2.924262 1.759756 -5.654633 
14.071342 -7.410214 3.849071 
-1.715042 3.477367 -9.636274 
-25.310616 -2.008535 10.273017 
17.860645 -2.694385 4.377916 
-6.292980 -0.760744 -1.432379 
12.258347 -2.491125 1.493260 
16.519934 1.954523 3.495358 
22.377129 3.775449 7.521414 
7.198812 6.062492 -1.873630 
-2.806029 5.055588 -2.995876 
9.197585 -0.373178 -0.677924 
-1.540238 2.286751 -6.201244 
7.493795 -3.023944 -2.157379 
-18.878391 -0.803542 5.634770 
-22.093897 -2.523269 8.299302 
13.027206 -3.873558 2.445590 
4.073991 -4.020741 -2.358818 
15.495019 -7.370626 4.072547 
-12.640259 -5.072703 2.352863 
4.556236 -1.538349 -1.797657 
-8.286307 -1.913131 -2.034508 
27.409628 -2.982398 12.347056 
-2.212648 -3.504681 -4.743429 
11.503775 -0.211522 0.391145 
-7.583743 2.704864 -2.211411 
-15.993547 1.134993 4.010238 
-0.812356 -7.939513 -4.403328 
-21.752396 0.000177 7.055945 
13.446712 -6.344406 1.680334 
29.317247 -0.825303 13.771778 
15.339874 5.431069 2.083037 
0.471083 9.815512 -5.028689 
1.106276 -10.199405 -3.550828 
-13.836617 -2.315003 2.882506 
4.328225 -1.202860 -1.917621 
19.243523 -2.566724 5.201564 
2.542326 3.813479 -9.459078 
16.838570 6.156442 5.269177 
2.690167 -1.858776 -4.761603 
-11.160947 2.759840 -0.275835 
18.586519 4.673878 4.931188 
11.965711 -1.433970 -0.890994 
9.248781 6.461403 -0.826729 
2.382589 -1.356933 -5.721296 
4.093424 3.840191 -2.170678 
4.562763 11.195867 -4.461734 
8.225954 -0.694208 -2.154826 
23.437967 -3.378997 8.555516 
25.630873 -0.451360 10.271675 
16.708080 5.222498 4.188474 
-24.708258 2.603879 9.451583 
11.656691 -1.340276 -1.052039 
-2.215547 10.407618 -3.873525 
-2.017416 -2.472882 -1.821260 
-15.738112 -0.983839 4.005841 
5.994894 1.952157 -2.747209 
-12.052679 -4.623445 -0.178922 
4.313403 12.565390 -4.113438 
-16.674156 6.061820 4.560781 
-26.317928 -3.680969 10.644175 
-0.111220 12.278459 -5.035349 
-3.372529 -3.672178 -3.094538 
14.701669 -1.772077 3.511891 
13.777397 -0.943028 2.638961 
2.334589 16.096140 -4.389922 
-9.364300 3.498268 -0.990794 
12.218388 8.158030 -0.202161 
2.866427 2.366890 -6.497284 
22.831488 0.353393 7.611042 
-16.534107 5.269890 4.836695 
-15.406880 -4.501331 4.407234 
-20.354343 -2.178304 5.827129 
4.189894 -1.117020 -3.351944 
12.919333 6.550816 1.355438 
-18.754864 -1.586897 5.698553 
-24.721518 -1.730786 10.298631 
5.468276 -0.480441 -3.004561 
14.462222 -2.155573 1.935958 
1.729371 14.046157 -5.034837 
7.827271 -3.769720 -0.565328 
-1.555749 2.811846 -8.453062 
1.936581 5.487626 -4.663065 
-4.404403 0.327586 -3.408853 
1.236361 -2.138711 -1.571300 
-19.366364 -4.164298 6.740935 
0.730893 -9.055101 -2.353307 
2.626897 3.789744 -9.760183 
-1.516216 0.208952 -8.004007 
13.494215 -5.348827 1.473650 
-14.778063 -1.077645 3.485979 
1.810223 15.255166 -4.114636 
13.449100 -2.379550 0.864409 
-2.785713 -4.246618 -2.694105 
-0.943905 15.250755 -5.009490 
18.350746 4.661592 5.490048 
-7.593050 5.206606 -1.307044 
8.600357 -1.522190 -0.596883 
2.361066 5.073798 -3.006509 
0.713922 7.514136 -3.547823 
0.424233 -2.132663 -6.780264 
19.025818 5.162514 5.296597 
0.157431 -0.745770 -6.791346 
9.659884 4.645049 -1.555789 
-14.218792 -6.573236 2.489537 
12.875897 -1.344269 0.062737 
25.649033 1.232922 10.242426 
-2.480995 3.252562 -8.480010 
9.456391 -0.774234 -0.526957 
0.896534 -7.939433 -3.950816 
-0.651948 11.989650 -5.034427 
3.153245 -1.541770 -3.914547 
17.513538 5.269592 4.571686 
13.939106 5.821422 1.403125 
-8.617865 -4.972267 -0.819687 
24.524948 1.153072 9.325642 
0.000000 6.458542 -4.996663 
3.445246 1.769626 -2.421244 
-12.218850 0.505896 1.028816 
4.575370 -0.312357 -3.307101 
5.686841 14.441061 -4.332418 
10.940565 2.883096 -1.292599 
10.393999 -2.472121 0.154002 
-5.433231 2.476000 -2.837221 
2.376782 13.832440 -3.964224 
-2.229801 1.655724 -8.783311 
18.637478 4.158916 5.461189 
20.508314 3.486338 6.150763 
13.922462 -3.397573 3.140573 
-16.240213 0.368825 4.171950 
-11.222062 5.163451 -0.547936 
11.971580 -2.211628 1.161896 
16.028782 -5.558753 3.674502 
7.619263 0.296094 -1.218248 
-13.818387 -4.573074 1.638317 
-2.443285 -1.948659 -5.333306 
-15.099348 3.849023 2.984831 
-3.173483 1.069000 -4.383825 
3.093688 2.795906 -4.020830 
-22.595959 -0.348351 7.508102 
18.432728 -3.941437 6.120405 
4.699991 5.352231 -2.607419 
-23.504665 0.034310 8.157206 
0.241451 6.496650 -3.410422 
0.644945 -9.057465 -4.485713 
-12.730834 0.812600 -0.182660 
13.127250 -7.149309 2.844954 
2.535850 13.572776 -3.972868 
-7.526131 5.615823 -1.264544 
0.643869 15.102995 -4.038223 
27.216858 0.604613 12.700243 
12.085368 0.097331 -0.895964 
11.101221 -3.973667 0.706042 
-14.289050 -5.192031 3.835628 
-9.582819 0.541605 -1.765089 
0.641436 -10.325432 -4.676538 
-1.795894 3.459801 -8.211615 
-17.014383 -1.440804 4.730134 
1.750631 3.348732 -7.769749 
10.879903 4.313298 -0.945336 
21.874859 -0.169023 6.493449 
-9.447192 -3.829835 -0.005616 
-19.420021 4.511719 5.365524 
11.085915 -5.318626 -0.562353 
6.414741 -0.354460 -2.726280 
-12.599396 3.961189 -0.213285 
15.317299 -2.986247 2.875482 
1.296602 12.383448 -3.871291 
1.822268 2.820891 -9.108783 
2.020720 2.872452 -10.885336 
0.457755 -8.537271 -2.306010 
-21.505333 3.691166 6.820290 
-3.032385 12.159638 -3.983333 
-1.545059 13.985264 -4.015222 
-2.381311 7.094315 -4.645741 
-23.123390 -0.419859 7.796781 
-11.563047 5.777811 -1.010883 
7.501942 6.685984 -1.108690 
-2.970084 -2.532538 -1.977906 
15.422692 -6.069969 3.357543 
2.484581 1.799966 -8.527737 
-1.194701 13.027304 -5.036272 
-0.646878 -2.182434 -6.713996 
-12.718188 -5.655557 0.811961 
4.606699 14.459057 -4.643865 
18.423473 5.568019 5.114364 
-20.952570 0.502546 6.639212 
-6.412540 -3.964522 -1.108883 
12.999119 0.080146 0.148034 
-28.850569 -4.397519 12.389109 
19.465525 0.062818 5.113945 
-15.645027 -1.081232 2.983311 
-7.365890 -0.532862 -2.426200 
22.869055 -4.703631 8.155020 
-14.298113 -4.268820 3.637146 
7.986182 3.286557 -1.351935 
11.008547 -0.118116 -1.328592 
-9.970748 -2.869433 -1.464635 
-11.383834 -2.217305 -1.078367 
4.277015 9.572880 -4.267674 
22.160919 -0.621182 6.668919 
-4.451324 5.934087 -2.674927 
-1.007848 -11.584650 -3.706031 
10.545177 -2.802312 0.267803 
-14.381407 -5.453446 3.958742 
-20.078558 0.758502 6.151685 
3.499246 2.584467 -2.375089 
-25.651928 -3.950840 10.076606 
16.780052 -3.670825 3.855554 
19.615828 -5.644784 6.808033 
12.391465 -0.063447 -0.584306 
8.947880 -1.445039 -1.882105 
0.953928 -0.100032 -1.786261 
12.019157 -3.493282 -0.486226 
-0.765017 -3.814218 -1.662007 
-11.381563 -4.771627 -0.723069 
-16.366590 -2.700356 3.497739 
-1.916506 -5.239652 -2.692730 
7.146116 0.540260 -2.508841 
22.164051 -1.496310 7.895122 
15.324947 -5.566193 3.217410 
3.203208 0.406042 -2.396561 
-0.498268 -0.633944 -6.798861 
-21.828333 4.351390 7.592445 
-5.926667 5.440676 -2.334570 
12.801930 4.353873 1.394348 
13.836363 -3.547261 1.448617 
2.328363 7.920430 -3.756645 
-14.221487 -3.489747 3.423618 
2.691116 4.746524 -3.825910 
-13.776070 0.158679 1.056465 
-22.049320 1.110519 7.377532 
0.833135 -8.249201 -4.109928 
11.192949 2.293390 -1.265198 
-5.594066 3.758334 -2.529134 
-30.712917 -3.980449 13.806160 
-8.742117 0.265401 -2.020239 
2.017697 2.823492 -11.178020 
-7.207358 -2.966439 -2.243364 
6.113393 -2.172581 -1.219101 
2.649097 12.954620 -4.932900 
8.379206 -2.555038 -1.951040 
4.128115 10.497339 -4.541246 
-4.970263 1.289725 -3.148898 
15.820653 1.197427 3.056710 
-12.915707 -3.639047 0.524546 
2.535588 2.723522 -11.888996 
-21.005011 3.607248 6.473463 
-0.248531 -6.937696 -5.454496 
18.629993 5.533077 5.749658 
10.432936 -4.765036 -1.054251 
-12.146496 1.207964 0.876546 
25.747292 1.026218 10.471710 
-19.312532 0.481965 5.727838 
-0.241451 6.496650 -3.410422 
-3.282673 -0.465144 -2.229822 
-6.111526 2.778642 -1.737192 
20.545252 -1.062238 5.780412 
-4.712713 5.875936 -1.911929 
9.582819 0.541605 -1.765089 
3.288301 9.896210 -3.985565 
-17.179600 -3.230272 4.038036 
-17.151131 6.583083 5.055832 
-11.996403 5.761304 0.218636 
23.167791 -2.643419 8.328236 
-14.543521 6.278640 1.618085 
-8.744505 -0.112949 -2.016939 
-2.205144 3.744419 -2.672725 
-5.729156 15.319152 -4.393446 
21.430155 -1.990372 6.512160 
17.578932 4.673719 5.200789 
0.155088 -11.728975 -2.518629 
-11.063938 5.199377 -0.828455 
-7.258024 -0.344287 -1.231460 
-21.585077 4.289383 7.194673 
-25.767773 -0.107139 11.181588 
2.771525 3.981773 -3.956867 
-11.384026 -5.840250 0.471331 
15.375363 5.573356 2.572045 
-1.027699 6.905916 -4.958821 
-16.912907 2.578402 3.749577 
-1.733927 9.601308 -3.802514 
9.067272 -0.170598 -1.916621 
9.707069 4.576253 -0.872656 
-23.513481 2.271975 8.528048 
-2.690600 2.507815 -7.709988 
-11.710956 4.580359 0.080031 
-2.609967 -0.247167 -7.152797 
-7.402549 -2.045246 -2.278508 
-9.177471 -3.677637 -1.615231 
3.426868 1.027545 -2.426252 
-9.601447 -0.620028 -1.738651 
15.815274 -5.370473 3.509468 
-20.210552 3.634623 6.050879 
8.833042 -4.805972 -1.322539 
15.515022 -0.303525 3.831623 
-10.758557 -1.679671 0.079845 
3.630206 8.497521 -4.316224 
-19.190567 -1.998256 5.082831 
23.695332 -4.562541 9.419398 
-14.558361 -6.381205 2.777959 
13.004253 -1.851847 2.050967 
19.269268 3.773546 5.158270 
4.426709 2.512844 -2.159716 
-2.852964 14.800997 -4.100788 
-28.475637 -4.299872 12.320893 
-2.478220 3.307240 -10.847461 
-4.766228 5.929633 -2.516920 
-11.743260 7.103954 -0.194709 
-0.865560 13.862096 -3.923820 
13.486624 -4.627212 1.315472 
-10.972102 -1.208227 -1.285859 
-2.383711 1.464608 -8.555384 
0.724746 11.200890 -5.032581 
-7.463763 -1.752819 -2.290122 
-2.581952 1.915840 -8.337502 
